0.400000 1.200000 25.799999 -0.116012 -0.506123 0.854623
0.433333 1.200000 25.799999 -0.086918 -0.501876 0.860561
0.400000 1.266666 25.799999 -0.146778 -0.415131 0.897843
0.433333 1.266666 25.799999 -0.141967 -0.410499 0.900742
0.433333 1.400000 25.900000 -0.026089 -0.526347 0.849870
0.466667 1.200000 25.799999 0.019414 -0.503964 0.863506
0.500000 1.200000 25.799999 0.138389 -0.489277 0.861079
0.466667 1.266666 25.799999 0.056860 -0.419464 0.905990
0.500000 1.266666 25.799999 0.167063 -0.448659 0.877949
0.533333 1.266666 25.799999 0.279878 -0.488207 0.826633
0.566667 1.266666 25.799999 0.194738 -0.460023 0.866288
0.466667 1.400000 25.900000 0.093058 -0.527691 0.844324
0.533333 1.400000 25.900000 0.222154 -0.505711 0.833609
0.566667 1.400000 25.900000 0.218864 -0.501081 0.837267
0.533333 1.400000 25.950001 0.432110 -0.498357 0.751612
0.333333 1.466666 25.900000 -0.143229 -0.578206 0.803221
0.366667 1.466666 25.900000 -0.231057 -0.553075 0.800450
0.366667 1.466666 25.950001 -0.095500 -0.549865 0.829776
0.333333 1.533334 25.950001 -0.130343 -0.593509 0.794203
0.333333 1.533334 26.000000 -0.163994 -0.507632 0.845823
0.366667 1.533334 26.000000 -0.101726 -0.482647 0.869887
0.400000 1.466666 26.000000 -0.451743 -0.122875 0.883646
0.433333 1.466666 26.000000 -0.140495 -0.248840 0.958301
0.400000 1.533334 26.000000 -0.109933 -0.465173 0.878367
0.433333 1.533334 26.000000 -0.041892 -0.457846 0.888044
0.433333 1.600000 26.000000 0.009333 -0.516554 0.856204
0.400000 1.600000 26.049999 -0.031756 -0.502915 0.863752
0.400000 1.666667 26.049999 -0.026618 -0.533760 0.845217
0.433333 1.666667 26.049999 0.067670 -0.533311 0.843209
0.466667 1.466666 26.000000 0.114871 -0.247763 0.961987
0.466667 1.533334 26.000000 0.095587 -0.433297 0.896168
0.466667 1.600000 26.000000 0.133449 -0.507804 0.851074
0.500000 1.600000 26.000000 0.191038 -0.499031 0.845265
0.466667 1.666667 26.049999 0.155594 -0.533077 0.831637
0.500000 1.666667 26.049999 0.200917 -0.523112 0.828243
0.533333 1.600000 26.000000 0.199666 -0.492153 0.847301
0.566667 1.600000 26.000000 0.211347 -0.485062 0.848556
0.566667 1.666667 26.000000 0.294016 -0.502632 0.812967
0.533333 1.666667 26.049999 0.205419 -0.523892 0.826644
0.600000 1.266666 25.799999 0.203736 -0.462251 0.863027
0.633333 1.266666 25.799999 0.244977 -0.454373 0.856465
0.600000 1.333333 25.799999 0.427418 -0.553922 0.714482
0.633333 1.333333 25.799999 0.287219 -0.547614 0.785891
0.600000 1.400000 25.850000 0.184178 -0.559592 0.808044
0.633333 1.400000 25.850000 0.243853 -0.550472 0.798446
0.600000 1.400000 25.900000 0.156580 -0.493485 0.855544
0.633333 1.400000 25.900000 0.177475 -0.488078 0.854565
0.666667 1.400000 25.900000 0.090353 -0.492338 0.865702
0.700000 1.400000 25.900000 0.100326 -0.487889 0.867121
0.833333 1.266666 25.799999 0.505239 -0.467328 0.725491
0.800000 1.333333 25.799999 0.340566 -0.450150 0.825457
0.833333 1.333333 25.799999 0.382958 -0.433505 0.815731
0.800000 1.333333 25.850000 0.639837 -0.391022 0.661597
0.800000 1.400000 25.850000 0.435389 -0.431506 0.790088
0.833333 1.400000 25.850000 0.520086 -0.430482 0.737696
0.600000 1.466666 25.900000 0.127339 -0.496157 0.858844
0.633333 1.466666 25.900000 0.209107 -0.485345 0.848949
0.600000 1.533334 25.950001 0.168586 -0.487103 0.856919
0.633333 1.533334 25.950001 0.211389 -0.483989 0.849158
0.666667 1.466666 25.900000 0.148323 -0.488361 0.859944
0.700000 1.466666 25.900000 0.147484 -0.480902 0.864281
0.666667 1.533334 25.950001 0.118894 -0.504956 0.854917
0.700000 1.533334 25.950001 0.139192 -0.490183 0.860434
0.733333 1.466666 25.900000 0.210814 -0.452298 0.866593
0.766667 1.466666 25.900000 0.441497 -0.374788 0.815238
0.733333 1.533334 25.900000 0.219601 -0.441591 0.869926
0.766667 1.533334 25.900000 0.350433 -0.399136 0.847283
0.800000 1.533334 25.900000 0.483702 -0.370420 0.792983
0.833333 1.600000 25.900000 0.531048 -0.418544 0.736756
0.800000 1.600000 25.950001 0.490355 -0.434190 0.755666
0.800000 1.666667 25.950001 0.481841 -0.474292 0.736801
0.833333 1.666667 25.950001 0.558830 -0.432480 0.707581
0.600000 1.600000 26.000000 0.174261 -0.488298 0.855101
0.633333 1.600000 26.000000 0.197924 -0.494841 0.846143
0.600000 1.666667 26.000000 0.146647 -0.536355 0.831155
0.633333 1.666667 26.000000 0.171552 -0.529237 0.830950
0.666667 1.666667 26.000000 0.189941 -0.517070 0.834602
0.700000 1.666667 26.000000 0.225216 -0.509188 0.830666
0.733333 1.666667 26.000000 0.270889 -0.504349 0.819910
0.766667 1.666667 26.000000 0.410905 -0.487469 0.770410
0.866667 0.800000 25.400000 0.474234 -0.459190 0.751163
0.900000 0.800000 25.400000 0.531588 -0.475755 0.700765
0.900000 0.866667 25.400000 0.445117 -0.476145 0.758391
0.866667 0.866667 25.450001 0.525642 -0.484457 0.699286
0.933333 0.866667 25.400000 0.519209 -0.485923 0.703065
0.966667 0.866667 25.400000 0.634394 -0.452838 0.626484
0.933333 0.866667 25.450001 0.659816 -0.450743 0.601226
0.933333 1.000000 25.500000 0.542901 -0.484695 0.685806
0.966667 1.000000 25.500000 0.642760 -0.436851 0.629301
0.933333 1.000000 25.549999 0.675258 -0.407307 0.614921
0.966667 1.066667 25.500000 0.624435 -0.423173 0.656509
0.933333 1.066667 25.549999 0.557317 -0.471279 0.683589
0.966667 1.133333 25.549999 0.679294 -0.374970 0.630838
1.000000 0.933333 25.400000 0.672857 -0.427342 0.603856
1.033333 0.933333 25.400000 0.750225 -0.350559 0.560598
1.033333 1.000000 25.400000 0.734504 -0.362539 0.573646
1.000000 0.933333 25.450001 0.748707 -0.359089 0.557220
1.000000 1.000000 25.450001 0.673094 -0.413858 0.612916
1.033333 1.000000 25.450001 0.749772 -0.353684 0.559241
1.066667 1.066667 25.400000 0.768109 -0.336176 0.544973
1.100000 1.133333 25.400000 0.811826 -0.285047 0.509595
1.066667 1.133333 25.450001 0.786166 -0.312602 0.533126
1.000000 1.066667 25.500000 0.676465 -0.414649 0.608655
1.033333 1.133333 25.500000 0.764674 -0.331227 0.552777
1.000000 1.133333 25.549999 0.739627 -0.344176 0.578355
0.866667 1.000000 25.600000 0.534372 -0.407917 0.740304
0.866667 1.066667 25.600000 0.460492 -0.484611 0.743706
0.900000 1.133333 25.600000 0.489955 -0.488782 0.721828
0.866667 1.133333 25.650000 0.488020 -0.467070 0.737348
0.900000 1.133333 25.650000 0.580580 -0.413980 0.701105
0.933333 1.133333 25.600000 0.602900 -0.421362 0.677470
0.966667 1.133333 25.600000 0.729914 -0.335082 0.595773
1.066667 1.200000 25.500000 0.803930 -0.271179 0.529299
1.100000 1.266666 25.500000 0.835884 -0.189204 0.515267
1.066667 1.266666 25.549999 0.818156 -0.242782 0.521227
1.066667 1.333333 25.500000 0.844476 -0.220401 0.488144
1.100000 1.400000 25.500000 0.848322 -0.190113 0.494172
1.066667 1.333333 25.549999 0.809174 -0.245098 0.534007
1.066667 1.400000 25.549999 0.828562 -0.212259 0.518103
0.866667 1.200000 25.700001 0.500219 -0.444925 0.742847
0.900000 1.200000 25.700001 0.605110 -0.381639 0.698708
0.866667 1.266666 25.750000 0.488839 -0.439391 0.753639
0.900000 1.266666 25.750000 0.672293 -0.330397 0.662465
0.933333 1.266666 25.700001 0.670225 -0.345382 0.656894
0.966667 1.333333 25.700001 0.717174 -0.293460 0.632093
0.966667 1.400000 25.700001 0.710177 -0.271818 0.649433
0.933333 1.333333 25.750000 0.710026 -0.320809 0.626853
0.933333 1.400000 25.750000 0.656429 -0.302065 0.691272
1.000000 1.200000 25.600000 0.778452 -0.301078 0.550786
1.033333 1.266666 25.600000 0.813042 -0.261837 0.520004
1.000000 1.266666 25.650000 0.812384 -0.292958 0.504191
1.033333 1.333333 25.600000 0.796180 -0.257474 0.547544
1.033333 1.400000 25.600000 0.801006 -0.228188 0.553462
1.000000 1.333333 25.650000 0.757287 -0.276083 0.591857
1.000000 1.400000 25.650000 0.774298 -0.240800 0.585216
1.066667 1.333333 25.600000 0.833951 -0.235438 0.499094
1.066667 1.466666 25.600000 0.812864 -0.256992 0.522692
1.100000 1.533334 25.600000 0.847312 -0.259228 0.463534
1.066667 1.533334 25.650000 0.807540 -0.291457 0.512769
1.000000 1.466666 25.700001 0.738986 -0.290130 0.608050
1.033333 1.533334 25.700001 0.781548 -0.290045 0.552319
1.000000 1.533334 25.750000 0.723748 -0.310876 0.616073
1.066667 1.600000 25.700001 0.817537 -0.252545 0.517546
1.100000 1.666667 25.700001 0.827534 -0.163788 0.536993
1.066667 1.666667 25.750000 0.828695 -0.159904 0.536373
1.133333 1.200000 25.400000 0.838582 -0.232152 0.492834
1.133333 1.266666 25.400000 0.842174 -0.207367 0.497737
1.133333 1.266666 25.450001 0.863012 -0.159445 0.479362
1.166667 1.333333 25.400000 0.853406 -0.197997 0.482177
1.166667 1.400000 25.400000 0.872576 -0.160715 0.461282
1.133333 1.333333 25.450001 0.855816 -0.199652 0.477198
1.133333 1.400000 25.450001 0.868890 -0.175783 0.462744
1.200000 1.466666 25.400000 0.909380 -0.146433 0.389339
1.200000 1.533334 25.400000 0.924234 -0.146523 0.352595
1.200000 1.533334 25.450001 0.934165 -0.144344 0.326344
1.200000 1.600000 25.400000 0.934447 -0.157165 0.319543
1.200000 1.666667 25.400000 0.947490 -0.140273 0.287377
1.200000 1.666667 25.450001 0.930598 -0.156259 0.331014
1.133333 1.466666 25.500000 0.874646 -0.198464 0.442273
1.166667 1.533334 25.500000 0.891081 -0.209421 0.402638
1.133333 1.533334 25.549999 0.876642 -0.227415 0.424006
1.133333 1.600000 25.600000 0.875978 -0.201854 0.438085
1.133333 1.666667 25.600000 0.870752 -0.199722 0.449336
1.133333 1.666667 25.650000 0.855049 -0.145624 0.497679
0.866667 1.333333 25.799999 0.503350 -0.402981 0.764359
0.866667 1.400000 25.799999 0.509520 -0.373266 0.775282
0.866667 1.466666 25.799999 0.599568 -0.314782 0.735820
0.900000 1.466666 25.799999 0.598698 -0.318104 0.735099
0.900000 1.533334 25.799999 0.629859 -0.324872 0.705504
0.866667 1.533334 25.850000 0.578043 -0.330181 0.746222
0.933333 1.533334 25.799999 0.610613 -0.346563 0.712071
0.966667 1.600000 25.799999 0.671796 -0.351981 0.651766
0.933333 1.600000 25.850000 0.637142 -0.346747 0.688343
0.933333 1.666667 25.850000 0.643138 -0.341345 0.685461
0.966667 1.666667 25.850000 0.707652 -0.290752 0.643966
0.866667 1.600000 25.900000 0.587188 -0.386490 0.711221
0.866667 1.666667 25.900000 0.609922 -0.416845 0.673970
0.900000 1.666667 25.900000 0.631101 -0.363467 0.685276
1.000000 1.600000 25.799999 0.762435 -0.267669 0.589106
1.033333 1.666667 25.799999 0.793154 -0.155636 0.588799
1.000000 1.666667 25.850000 0.816146 -0.188401 0.546270
0.333333 1.733334 26.100000 -0.073508 -0.530562 0.844453
0.366667 1.733334 26.100000 -0.051103 -0.537710 0.841580
0.333333 1.800000 26.150000 -0.062359 -0.537684 0.840837
0.366667 1.800000 26.150000 -0.048776 -0.569606 0.820469
0.400000 1.733334 26.100000 -0.001333 -0.546346 0.837559
0.433333 1.733334 26.100000 0.051603 -0.555339 0.830021
0.400000 1.800000 26.150000 -0.009559 -0.580086 0.814499
0.433333 1.800000 26.150000 0.031504 -0.586616 0.809252
0.466667 1.733334 26.100000 0.125783 -0.559451 0.819264
0.500000 1.800000 26.100000 0.190996 -0.552063 0.811632
0.466667 1.800000 26.150000 0.093722 -0.589638 0.802211
0.500000 1.800000 26.150000 0.108849 -0.591322 0.799056
0.566667 1.733334 26.100000 0.161768 -0.555599 0.815562
0.533333 1.800000 26.100000 0.242683 -0.543175 0.803782
0.533333 1.800000 26.150000 0.111448 -0.599111 0.792872
0.566667 1.800000 26.150000 0.149949 -0.597633 0.787623
0.600000 1.733334 26.100000 0.133387 -0.557879 0.819133
0.633333 1.800000 26.100000 0.248747 -0.557254 0.792208
0.600000 1.800000 26.150000 0.195175 -0.592380 0.781660
0.666667 1.800000 26.100000 0.231886 -0.545239 0.805570
0.700000 1.800000 26.100000 0.258897 -0.534758 0.804367
0.800000 1.733334 26.000000 0.476917 -0.478009 0.737603
0.833333 1.733334 26.000000 0.581128 -0.424173 0.694527
0.800000 1.733334 26.049999 0.586175 -0.429607 0.686904
0.800000 1.800000 26.049999 0.477055 -0.463003 0.747026
0.833333 1.800000 26.049999 0.606920 -0.401846 0.685688
0.733333 1.800000 26.100000 0.325820 -0.515342 0.792631
0.766667 1.800000 26.100000 0.449269 -0.456074 0.768215
0.766667 1.866667 26.100000 0.362207 -0.497901 0.787972
0.733333 1.866667 26.150000 0.356335 -0.500979 0.788698
0.766667 1.933333 26.150000 0.398840 -0.461827 0.792239
0.800000 1.866667 26.100000 0.469236 -0.455203 0.756708
0.833333 1.866667 26.100000 0.603742 -0.401263 0.688828
0.833333 1.933333 26.100000 0.589468 -0.415855 0.692526
0.800000 1.933333 26.150000 0.500601 -0.431643 0.750388
1.100000 1.733334 25.700001 0.831292 -0.174168 0.527844
1.100000 1.800000 25.700001 0.841892 -0.175826 0.510200
1.066667 1.733334 25.750000 0.816819 -0.178016 0.548742
1.066667 1.800000 25.750000 0.825480 -0.177467 0.535807
1.233333 1.733334 25.400000 0.964085 -0.138688 0.226509
1.233333 1.800000 25.400000 0.972235 -0.152879 0.177163
1.200000 1.733334 25.450001 0.935788 -0.173578 0.306874
1.233333 1.800000 25.450001 0.950400 -0.177242 0.255588
1.200000 1.733334 25.500000 0.925216 -0.179273 0.334420
1.200000 1.800000 25.500000 0.930491 -0.213297 0.297810
1.200000 1.800000 25.549999 0.908951 -0.192919 0.369582
1.233333 1.866667 25.500000 0.938857 -0.190454 0.286836
1.233333 1.933333 25.500000 0.941259 -0.192640 0.277348
1.200000 1.866667 25.549999 0.906368 -0.219374 0.361071
1.233333 1.933333 25.549999 0.898381 -0.239624 0.368094
1.266667 1.933333 25.400000 0.973926 -0.169504 0.150788
1.266667 1.933333 25.450001 0.959020 -0.181643 0.217454
1.266667 2.000000 25.400000 0.978912 -0.151461 0.137079
1.266667 2.000000 25.450001 0.958359 -0.185066 0.217483
1.266667 2.066667 25.450001 0.985395 -0.023035 0.168721
1.266667 2.000000 25.500000 0.926629 -0.199973 0.318384
1.266667 2.066667 25.549999 0.917543 -0.103785 0.383855
1.133333 1.733334 25.600000 0.867342 -0.191300 0.459479
1.166667 1.800000 25.600000 0.881251 -0.205365 0.425702
1.133333 1.800000 25.650000 0.851949 -0.192646 0.486899
1.200000 1.866667 25.600000 0.900994 -0.208468 0.380462
1.200000 1.933333 25.600000 0.889735 -0.248142 0.383142
1.133333 1.866667 25.700001 0.839489 -0.233654 0.490576
1.133333 1.933333 25.700001 0.838327 -0.290887 0.461078
1.233333 2.000000 25.600000 0.888721 -0.232229 0.395278
1.233333 2.066667 25.600000 0.937212 -0.115913 0.328934
1.200000 2.000000 25.650000 0.885870 -0.247680 0.392286
1.200000 2.066667 25.650000 0.946875 -0.139079 0.289975
1.233333 2.133333 25.600000 0.963281 -0.027905 0.267040
1.233333 2.200000 25.600000 0.975138 0.054488 0.214796
1.233333 2.133333 25.650000 0.968518 -0.027238 0.247451
1.200000 2.200000 25.650000 0.981753 0.002901 0.190138
1.166667 2.000000 25.700001 0.858504 -0.282932 0.427691
1.133333 2.000000 25.750000 0.839581 -0.331165 0.430620
1.166667 2.066667 25.750000 0.906488 -0.242230 0.345839
1.200000 2.066667 25.700001 0.939483 -0.150211 0.307909
1.200000 2.066667 25.750000 0.963889 -0.115052 0.240168
1.233333 2.133333 25.700001 0.979233 -0.053910 0.195437
1.233333 2.200000 25.700001 0.988598 -0.052631 0.141080
1.200000 2.133333 25.750000 0.962478 -0.110845 0.247689
1.233333 2.200000 25.750000 0.981296 -0.079968 0.175106
1.100000 2.666667 25.400000 0.865782 0.396814 -0.304894
1.066667 2.733334 25.400000 0.786845 0.459065 -0.412474
1.100000 2.733334 25.450001 0.870191 0.387824 -0.303907
1.200000 2.400000 25.400000 0.965999 0.250377 -0.064477
1.200000 2.466666 25.400000 0.965984 0.241937 -0.091325
1.200000 2.400000 25.450001 0.986625 0.159295 -0.034596
1.233333 2.266666 25.500000 0.984739 0.146373 0.094152
1.200000 2.333333 25.500000 0.996835 0.064925 -0.045875
1.233333 2.266666 25.549999 0.984323 0.131200 0.117875
1.200000 2.333333 25.549999 0.995367 0.046116 -0.084366
1.200000 2.400000 25.500000 0.994576 0.092649 -0.047267
1.200000 2.466666 25.500000 0.983731 0.154669 -0.091380
1.200000 2.400000 25.549999 0.996518 0.036872 -0.074777
1.200000 2.466666 25.549999 0.989294 0.096795 -0.109215
1.133333 2.666667 25.450001 0.912541 0.356935 -0.199666
1.166667 2.666667 25.450001 0.921939 0.331166 -0.200892
1.133333 2.733334 25.450001 0.902472 0.350793 -0.249978
1.200000 2.533334 25.500000 0.976404 0.177063 -0.123630
1.200000 2.533334 25.549999 0.981120 0.132620 -0.140771
1.166667 2.666667 25.500000 0.930614 0.294910 -0.216763
1.133333 2.733334 25.500000 0.905978 0.331840 -0.262841
1.166667 2.666667 25.549999 0.935431 0.279943 -0.215873
1.133333 2.733334 25.549999 0.908115 0.323716 -0.265586
1.200000 2.266666 25.600000 0.997286 0.065486 0.033647
1.200000 2.333333 25.600000 0.997832 0.048529 -0.044461
1.200000 2.266666 25.650000 0.992352 0.044846 0.115007
1.233333 2.333333 25.650000 0.997099 0.071200 0.026911
1.200000 2.400000 25.600000 0.997858 0.042168 -0.050012
1.200000 2.466666 25.600000 0.995259 0.066648 -0.070832
1.200000 2.400000 25.650000 0.999560 0.025692 -0.014834
1.200000 2.466666 25.650000 0.998619 0.038759 -0.035477
1.233333 2.266666 25.700001 0.995896 -0.032195 0.084584
1.200000 2.333333 25.700001 0.996083 0.055692 0.068683
1.200000 2.266666 25.750000 0.974048 -0.016713 0.225724
1.200000 2.333333 25.750000 0.982343 0.038482 0.183091
1.200000 2.400000 25.700001 0.999684 0.018306 0.017217
1.200000 2.466666 25.700001 0.999697 0.020805 -0.013192
1.200000 2.466666 25.750000 0.993384 -0.032450 0.110156
1.200000 2.533334 25.600000 0.984306 0.105788 -0.141249
1.200000 2.600000 25.600000 0.975933 0.178498 -0.125275
1.200000 2.533334 25.650000 0.990906 0.076672 -0.110570
1.200000 2.600000 25.650000 0.976347 0.181246 -0.117886
1.200000 2.666667 25.650000 0.973536 0.211872 -0.085659
1.233333 2.533334 25.700001 0.978900 0.055646 -0.196617
1.233333 2.600000 25.700001 0.958399 0.208447 -0.194991
1.200000 2.533334 25.750000 0.990579 -0.070910 0.117155
1.200000 2.600000 25.750000 0.992570 0.107856 0.056325
1.200000 2.666667 25.700001 0.963213 0.243936 -0.112766
1.200000 2.666667 25.750000 0.983798 0.163628 0.073266
0.933333 1.733334 25.900000 0.700529 -0.305013 0.645156
0.966667 1.733334 25.900000 0.779098 -0.244697 0.577175
0.966667 1.800000 25.900000 0.755684 -0.250510 0.605134
0.933333 1.800000 25.950001 0.735030 -0.292796 0.611557
0.966667 1.800000 25.950001 0.834196 -0.219141 0.506058
0.966667 1.866667 25.900000 0.754946 -0.249207 0.606590
0.933333 1.866667 25.950001 0.729101 -0.291933 0.619021
0.966667 1.933333 25.950001 0.773997 -0.298744 0.558284
1.033333 1.733334 25.799999 0.783362 -0.199358 0.588728
1.033333 1.800000 25.799999 0.796816 -0.195379 0.571763
1.000000 1.733334 25.850000 0.773570 -0.226332 0.591915
1.033333 1.733334 25.850000 0.830233 -0.151542 0.536422
1.000000 1.800000 25.850000 0.772629 -0.215936 0.597006
1.033333 1.866667 25.799999 0.817026 -0.204613 0.539074
1.000000 1.866667 25.850000 0.788624 -0.208418 0.578475
1.033333 1.933333 25.850000 0.793442 -0.290169 0.535024
1.066667 1.866667 25.799999 0.796160 -0.225909 0.561332
1.066667 1.933333 25.799999 0.822765 -0.307594 0.477958
1.000000 1.933333 25.900000 0.793573 -0.250723 0.554418
1.100000 2.000000 25.799999 0.800278 -0.383919 0.460610
1.066667 2.000000 25.850000 0.772855 -0.402053 0.490967
1.100000 2.066667 25.850000 0.780829 -0.409226 0.472059
1.033333 2.000000 25.900000 0.765288 -0.408672 0.497315
1.000000 2.000000 25.950001 0.761503 -0.403593 0.507174
1.033333 2.066667 25.950001 0.719261 -0.477538 0.504600
1.066667 2.066667 25.900000 0.737282 -0.464951 0.490140
0.866667 1.800000 26.000000 0.635252 -0.386554 0.668604
0.866667 1.800000 26.049999 0.729627 -0.347526 0.588957
0.900000 1.866667 26.000000 0.687004 -0.356625 0.633123
0.866667 1.866667 26.049999 0.644942 -0.391277 0.656470
0.900000 1.933333 26.049999 0.690004 -0.375085 0.619037
0.933333 1.933333 26.000000 0.744352 -0.323185 0.584373
0.866667 1.933333 26.100000 0.651815 -0.389921 0.650461
0.966667 2.000000 26.000000 0.752795 -0.406120 0.518042
0.933333 2.000000 26.049999 0.720637 -0.415080 0.555329
0.966667 2.066667 26.049999 0.706213 -0.483682 0.517025
0.900000 2.000000 26.100000 0.667174 -0.425050 0.611728
0.866667 2.000000 26.150000 0.623329 -0.424842 0.656483
0.866667 2.066667 26.150000 0.594021 -0.493558 0.635248
0.900000 2.066667 26.150000 0.631764 -0.488174 0.602130
0.933333 2.066667 26.100000 0.677318 -0.481597 0.556151
0.966667 2.133333 26.100000 0.679255 -0.509965 0.527778
0.933333 2.133333 26.150000 0.632201 -0.533427 0.561940
0.966667 2.200000 26.150000 0.708989 -0.480554 0.516142
1.000000 2.066667 26.000000 0.729110 -0.480814 0.487049
1.066667 2.133333 26.000000 0.786754 -0.417257 0.454878
1.100000 2.200000 26.000000 0.859311 -0.306714 0.409282
1.066667 2.200000 26.049999 0.839294 -0.336727 0.426849
1.100000 2.200000 26.049999 0.905698 -0.230809 0.355582
1.000000 2.133333 26.100000 0.689346 -0.499094 0.525078
1.033333 2.200000 26.100000 0.797024 -0.384547 0.465700
1.000000 2.200000 26.150000 0.734693 -0.447896 0.509524
1.033333 2.200000 26.150000 0.828594 -0.346514 0.439727
1.066667 2.200000 26.100000 0.866287 -0.296122 0.402317
1.133333 2.066667 25.799999 0.858035 -0.337162 0.387423
1.166667 2.066667 25.799999 0.916626 -0.242823 0.317543
1.133333 2.066667 25.850000 0.855753 -0.337552 0.392104
1.200000 2.133333 25.799999 0.963364 -0.112899 0.243279
1.200000 2.200000 25.799999 0.957079 -0.127045 0.260498
1.200000 2.200000 25.850000 0.936722 -0.154493 0.314141
1.133333 2.133333 25.900000 0.875321 -0.315770 0.366201
1.166667 2.133333 25.900000 0.935118 -0.185866 0.301675
1.166667 2.200000 25.900000 0.895349 -0.243257 0.373064
1.133333 2.133333 25.950001 0.889220 -0.296943 0.348013
1.133333 2.200000 25.950001 0.875278 -0.279244 0.394857
1.133333 2.200000 26.000000 0.914605 -0.202660 0.349896
1.100000 2.266666 26.100000 0.909872 -0.155600 0.384606
1.100000 2.333333 26.100000 0.909928 -0.140071 0.390398
1.066667 2.266666 26.150000 0.869867 -0.229196 0.436808
1.066667 2.333333 26.150000 0.870834 -0.214215 0.442447
1.100000 2.400000 26.100000 0.917643 -0.128505 0.376055
1.100000 2.466666 26.100000 0.922728 -0.128910 0.363257
1.066667 2.400000 26.150000 0.891779 -0.162045 0.422459
1.066667 2.466666 26.150000 0.910583 -0.135723 0.390408
1.200000 2.266666 25.799999 0.961754 -0.051737 0.268984
1.166667 2.266666 25.900000 0.927374 -0.136422 0.348376
1.133333 2.333333 25.900000 0.953675 0.000313 0.300839
1.133333 2.266666 25.950001 0.916217 -0.162055 0.366448
1.166667 2.333333 25.950001 0.913735 -0.071198 0.400025
1.166667 2.400000 25.900000 0.949212 -0.044960 0.311410
1.133333 2.466666 25.900000 0.970216 -0.111310 0.215153
1.133333 2.400000 25.950001 0.944989 -0.067165 0.320131
1.133333 2.466666 25.950001 0.966354 -0.119085 0.227989
1.200000 2.533334 25.799999 0.980315 -0.095834 0.172623
1.233333 2.600000 25.799999 0.978845 0.103728 0.176358
1.200000 2.600000 25.850000 0.975319 0.048283 0.215457
1.200000 2.666667 25.799999 0.982286 0.152956 0.108250
1.200000 2.666667 25.850000 0.975868 0.137661 0.169503
1.166667 2.533334 25.900000 0.970505 -0.123667 0.206945
1.133333 2.533334 25.950001 0.969045 -0.164936 0.183706
1.166667 2.600000 25.950001 0.975090 -0.032999 0.219340
1.200000 2.600000 25.900000 0.962030 0.041541 0.269764
1.200000 2.600000 25.950001 0.952875 -0.012456 0.303107
1.200000 2.666667 25.900000 0.976282 0.118401 0.181256
1.200000 2.733334 25.900000 0.977639 0.160232 0.136191
1.200000 2.666667 25.950001 0.977018 0.079824 0.197648
1.200000 2.733334 25.950001 0.987517 0.135208 0.080807
1.133333 2.266666 26.000000 0.915635 -0.155972 0.370521
1.133333 2.333333 26.000000 0.921642 -0.073419 0.381033
1.133333 2.266666 26.049999 0.952521 -0.065668 0.297306
1.133333 2.333333 26.049999 0.939384 -0.080634 0.333251
1.133333 2.400000 26.000000 0.926540 -0.078238 0.367970
1.133333 2.466666 26.000000 0.952090 -0.114685 0.283500
1.133333 2.400000 26.049999 0.934494 -0.111332 0.338122
1.133333 2.533334 26.000000 0.954026 -0.161465 0.252514
1.133333 2.600000 26.000000 0.968165 -0.083099 0.236117
1.133333 2.533334 26.049999 0.943780 -0.173562 0.281346
1.133333 2.600000 26.049999 0.958819 -0.132199 0.251376
1.200000 2.666667 26.000000 0.999251 0.016078 -0.035210
1.133333 2.600000 26.100000 0.950115 -0.175646 0.257741
1.166667 2.666667 26.100000 0.970757 -0.157856 0.180866
1.166667 2.733334 26.100000 0.991120 -0.080687 0.105696
1.133333 2.666667 26.150000 0.955837 -0.198016 0.217178
1.166667 2.733334 26.150000 0.978485 -0.128645 0.161301
0.033333 2.066667 26.200001 -0.526759 -0.388743 0.755913
-0.033333 2.200000 26.200001 -0.587509 -0.408119 0.698764
0.000000 2.133333 26.200001 -0.565074 -0.393985 0.724891
0.033333 2.133333 26.200001 -0.551508 -0.415653 0.723237
0.000000 2.200000 26.200001 -0.588571 -0.417903 0.692056
0.033333 2.200000 26.200001 -0.639285 -0.410704 0.650106
0.166667 1.933333 26.200001 -0.456832 -0.414742 0.786952
0.200000 1.933333 26.200001 -0.382228 -0.448920 0.807696
0.233333 1.933333 26.200001 -0.315740 -0.465224 0.826968
0.266667 1.866667 26.200001 -0.272866 -0.454864 0.847728
0.300000 1.866667 26.200001 -0.178843 -0.489947 0.853210
0.266667 1.933333 26.200001 -0.225856 -0.473499 0.851344
0.300000 1.933333 26.200001 -0.175304 -0.474840 0.862436
0.100000 2.000000 26.200001 -0.490378 -0.396695 0.775991
0.066667 2.066667 26.200001 -0.512019 -0.407393 0.756219
0.100000 2.066667 26.200001 -0.498116 -0.415929 0.760844
0.133333 2.000000 26.200001 -0.452166 -0.415920 0.789023
0.166667 2.000000 26.200001 -0.437968 -0.439881 0.784021
0.133333 2.066667 26.200001 -0.493320 -0.430426 0.755890
0.166667 2.066667 26.250000 -0.445380 -0.444559 0.777177
0.066667 2.133333 26.200001 -0.544219 -0.415587 0.728775
0.100000 2.133333 26.250000 -0.499531 -0.437789 0.747535
0.066667 2.200000 26.250000 -0.536039 -0.431291 0.725707
0.100000 2.200000 26.250000 -0.563645 -0.403218 0.720916
0.133333 2.200000 26.299999 -0.477359 -0.471640 0.741406
0.166667 2.200000 26.299999 -0.465305 -0.473554 0.747823
0.133333 2.200000 26.350000 -0.512359 -0.529539 0.676074
0.166667 2.200000 26.350000 -0.452593 -0.532316 0.715401
0.200000 2.000000 26.200001 -0.385485 -0.464943 0.797013
0.233333 2.000000 26.250000 -0.368738 -0.476476 0.798125
0.200000 2.066667 26.250000 -0.361007 -0.474407 0.802877
0.233333 2.066667 26.250000 -0.255023 -0.501817 0.826525
0.266667 2.066667 26.299999 -0.304292 -0.494149 0.814385
0.300000 2.066667 26.299999 -0.249577 -0.498398 0.830248
0.200000 2.133333 26.299999 -0.355367 -0.501945 0.788521
0.233333 2.133333 26.299999 -0.223131 -0.534462 0.815208
0.233333 2.133333 26.350000 -0.432074 -0.505861 0.746604
0.200000 2.200000 26.350000 -0.354166 -0.557205 0.751059
0.233333 2.200000 26.350000 -0.254604 -0.581141 0.772950
-0.133333 2.333333 26.200001 -0.860361 -0.226629 0.456529
-0.100000 2.333333 26.200001 -0.813234 -0.301478 0.497756
-0.166667 2.400000 26.200001 -0.922940 -0.160301 0.349980
-0.166667 2.466666 26.200001 -0.929108 -0.133906 0.344714
-0.133333 2.400000 26.200001 -0.849350 -0.246333 0.466825
-0.100000 2.400000 26.250000 -0.832542 -0.269483 0.483997
-0.133333 2.466666 26.250000 -0.875982 -0.194308 0.441475
-0.100000 2.466666 26.250000 -0.833715 -0.262192 0.485978
-0.033333 2.266666 26.250000 -0.624285 -0.405579 0.667663
-0.066667 2.333333 26.250000 -0.735000 -0.348360 0.581739
-0.033333 2.333333 26.299999 -0.661296 -0.429580 0.614938
0.000000 2.333333 26.299999 -0.595748 -0.440459 0.671625
0.033333 2.333333 26.299999 -0.561630 -0.426396 0.709055
0.033333 2.333333 26.350000 -0.614891 -0.484867 0.621942
-0.066667 2.400000 26.299999 -0.781642 -0.328023 0.530506
-0.033333 2.400000 26.299999 -0.633395 -0.414494 0.653457
-0.066667 2.466666 26.299999 -0.762369 -0.342717 0.548944
-0.033333 2.466666 26.350000 -0.677684 -0.416897 0.605756
-0.166667 2.533334 26.200001 -0.945072 -0.122620 0.302991
-0.166667 2.600000 26.200001 -0.963366 -0.069076 0.259141
-0.166667 2.533334 26.250000 -0.949084 -0.121547 0.290629
-0.166667 2.600000 26.250000 -0.959142 -0.093077 0.267176
-0.166667 2.666667 26.200001 -0.978977 -0.030135 0.201732
-0.166667 2.733334 26.200001 -0.991623 0.006651 0.128994
-0.166667 2.666667 26.250000 -0.971966 -0.064354 0.226144
-0.166667 2.733334 26.250000 -0.981287 -0.024649 0.190968
-0.100000 2.533334 26.299999 -0.864458 -0.242174 0.440527
-0.133333 2.600000 26.299999 -0.916511 -0.172910 0.360708
-0.100000 2.600000 26.350000 -0.884612 -0.218747 0.411839
-0.166667 2.666667 26.299999 -0.971393 -0.115182 0.207674
-0.166667 2.733334 26.299999 -0.976692 -0.081824 0.198439
0.033333 2.466666 26.400000 -0.662846 -0.463570 0.587995
0.033333 2.466666 26.450001 -0.670503 -0.484371 0.561969
-0.133333 2.666667 26.400000 -0.914322 -0.227803 0.334845
-0.100000 2.666667 26.400000 -0.893700 -0.242709 0.377350
-0.133333 2.733334 26.400000 -0.924176 -0.175349 0.339339
-0.100000 2.666667 26.450001 -0.863287 -0.275120 0.423137
-0.100000 2.733334 26.450001 -0.884553 -0.249511 0.394094
-0.100000 2.733334 26.500000 -0.768588 -0.339029 0.542523
-0.033333 2.533334 26.400000 -0.714168 -0.425245 0.555995
-0.066667 2.600000 26.400000 -0.827916 -0.333075 0.451238
-0.066667 2.600000 26.450001 -0.820478 -0.338894 0.460399
-0.033333 2.600000 26.450001 -0.744527 -0.436981 0.504706
0.033333 2.533334 26.500000 -0.698070 -0.474149 0.536545
0.000000 2.600000 26.500000 -0.742995 -0.453301 0.492419
0.000000 2.600000 26.549999 -0.752184 -0.391485 0.530055
0.033333 2.600000 26.549999 -0.701366 -0.455721 0.548092
-0.033333 2.666667 26.500000 -0.770992 -0.405557 0.491015
-0.066667 2.733334 26.500000 -0.818239 -0.321807 0.476367
-0.033333 2.666667 26.549999 -0.771106 -0.384772 0.507293
-0.066667 2.733334 26.549999 -0.791375 -0.337625 0.509641
0.066667 2.266666 26.299999 -0.535116 -0.455579 0.711406
0.100000 2.266666 26.299999 -0.559132 -0.423449 0.712785
0.100000 2.266666 26.350000 -0.531351 -0.523052 0.666395
0.066667 2.333333 26.350000 -0.589703 -0.489237 0.642572
0.100000 2.333333 26.400000 -0.565464 -0.539010 0.624274
0.166667 2.266666 26.400000 -0.450974 -0.580542 0.677933
0.133333 2.333333 26.400000 -0.531238 -0.548131 0.646017
0.166667 2.333333 26.450001 -0.466379 -0.587806 0.661040
0.100000 2.400000 26.500000 -0.637298 -0.489800 0.594934
0.066667 2.466666 26.500000 -0.654147 -0.488093 0.577804
0.100000 2.466666 26.500000 -0.590657 -0.548536 0.591804
0.133333 2.400000 26.500000 -0.562014 -0.554153 0.614047
0.166667 2.400000 26.500000 -0.475163 -0.596436 0.646904
0.133333 2.466666 26.549999 -0.578671 -0.566897 0.586317
0.166667 2.466666 26.549999 -0.536923 -0.605613 0.587322
0.200000 2.266666 26.400000 -0.365134 -0.586930 0.722628
0.233333 2.266666 26.400000 -0.289031 -0.586559 0.756577
0.200000 2.333333 26.450001 -0.374349 -0.616938 0.692279
0.233333 2.333333 26.450001 -0.287911 -0.629018 0.722110
0.266667 2.266666 26.400000 -0.260032 -0.578265 0.773300
0.300000 2.266666 26.400000 -0.274390 -0.562483 0.779951
0.300000 2.266666 26.450001 -0.290369 -0.636519 0.714513
0.266667 2.333333 26.450001 -0.216503 -0.638949 0.738153
0.233333 2.333333 26.500000 -0.429967 -0.621903 0.654496
0.266667 2.333333 26.500000 -0.345932 -0.662005 0.664891
0.300000 2.333333 26.500000 -0.252430 -0.711836 0.655415
0.066667 2.533334 26.500000 -0.682365 -0.504526 0.528992
0.100000 2.533334 26.549999 -0.636334 -0.525438 0.564795
0.066667 2.600000 26.549999 -0.713241 -0.469534 0.520409
0.033333 2.600000 26.600000 -0.713082 -0.429010 0.554495
-0.033333 2.733334 26.600000 -0.813488 -0.352284 0.462745
0.000000 2.666667 26.600000 -0.778765 -0.387658 0.493201
0.033333 2.666667 26.600000 -0.695210 -0.426785 0.578392
0.000000 2.733334 26.600000 -0.762130 -0.375617 0.527323
0.033333 2.733334 26.650000 -0.707942 -0.419327 0.568316
0.200000 2.466666 26.600000 -0.483216 -0.611469 0.626585
0.233333 2.466666 26.600000 -0.448109 -0.630686 0.633588
0.233333 2.466666 26.650000 -0.435642 -0.554695 0.708893
0.266667 2.400000 26.600000 -0.408961 -0.598263 0.689080
0.300000 2.400000 26.600000 -0.311038 -0.654539 0.689082
0.300000 2.400000 26.650000 -0.234709 -0.573281 0.785022
0.266667 2.466666 26.650000 -0.327359 -0.615119 0.717262
0.266667 2.466666 26.700001 -0.449829 -0.429018 0.783324
0.300000 2.466666 26.700001 -0.268386 -0.536005 0.800417
0.100000 2.533334 26.600000 -0.645721 -0.483292 0.591163
0.066667 2.600000 26.600000 -0.657386 -0.478274 0.582321
0.066667 2.600000 26.650000 -0.721418 -0.464532 0.513582
0.100000 2.600000 26.650000 -0.643852 -0.497453 0.581373
0.133333 2.533334 26.600000 -0.582700 -0.545166 0.602706
0.166667 2.533334 26.600000 -0.567488 -0.566000 0.597998
0.166667 2.533334 26.650000 -0.576823 -0.525740 0.625199
0.133333 2.600000 26.650000 -0.595717 -0.517266 0.614457
0.133333 2.600000 26.700001 -0.656093 -0.484751 0.578410
0.166667 2.600000 26.700001 -0.549091 -0.539043 0.638696
0.100000 2.666667 26.700001 -0.653961 -0.488742 0.577465
0.066667 2.733334 26.700001 -0.682356 -0.436029 0.586744
0.100000 2.733334 26.700001 -0.675970 -0.409542 0.612650
0.133333 2.666667 26.700001 -0.616152 -0.498711 0.609626
0.166667 2.666667 26.750000 -0.517561 -0.534461 0.668193
0.133333 2.733334 26.750000 -0.627542 -0.440449 0.642024
0.200000 2.533334 26.700001 -0.544507 -0.465262 0.697885
0.233333 2.533334 26.700001 -0.431555 -0.525832 0.732981
0.200000 2.600000 26.700001 -0.512763 -0.533903 0.672326
0.233333 2.600000 26.750000 -0.412731 -0.557885 0.720013
0.266667 2.533334 26.700001 -0.343594 -0.573962 0.743311
0.300000 2.533334 26.700001 -0.259011 -0.598899 0.757781
0.266667 2.600000 26.750000 -0.343777 -0.576622 0.741164
0.300000 2.600000 26.750000 -0.265157 -0.590826 0.761982
0.133333 2.733334 26.799999 -0.680603 -0.430278 0.592993
0.166667 2.733334 26.799999 -0.560153 -0.485256 0.671384
0.300000 2.600000 26.799999 -0.364004 -0.562225 0.742566
0.233333 2.666667 26.799999 -0.389345 -0.565992 0.726679
0.200000 2.733334 26.799999 -0.513725 -0.511594 0.688737
0.200000 2.733334 26.850000 -0.498081 -0.525818 0.689515
0.233333 2.733334 26.850000 -0.376535 -0.575146 0.726243
0.266667 2.666667 26.799999 -0.353211 -0.578231 0.735453
0.300000 2.666667 26.799999 -0.317534 -0.586972 0.744739
0.266667 2.733334 26.850000 -0.367999 -0.577306 0.728900
0.300000 2.733334 26.850000 -0.343294 -0.585288 0.734566
0.300000 2.733334 26.900000 -0.358760 -0.598564 0.716249
0.333333 1.866667 26.200001 -0.087721 -0.515981 0.852096
0.366667 1.866667 26.200001 -0.038169 -0.534589 0.844250
0.333333 1.933333 26.200001 -0.108693 -0.475386 0.873037
0.366667 1.933333 26.250000 -0.056749 -0.563356 0.824263
0.400000 1.866667 26.200001 -0.006685 -0.544418 0.838787
0.433333 1.866667 26.200001 0.025319 -0.552427 0.833176
0.400000 1.933333 26.250000 -0.022826 -0.570629 0.820891
0.433333 1.933333 26.250000 0.035617 -0.570825 0.820299
0.466667 1.866667 26.200001 0.052532 -0.552248 0.832023
0.500000 1.866667 26.200001 0.043519 -0.551315 0.833161
0.466667 1.933333 26.250000 0.111597 -0.556358 0.823415
0.500000 1.933333 26.250000 0.142515 -0.543398 0.827290
0.533333 1.866667 26.200001 0.046786 -0.553615 0.831458
0.566667 1.866667 26.200001 0.096525 -0.536805 0.838167
0.566667 1.933333 26.200001 0.241304 -0.497911 0.832981
0.533333 1.933333 26.250000 0.166829 -0.539053 0.825585
0.333333 2.066667 26.299999 -0.179524 -0.492247 0.851742
0.366667 2.066667 26.299999 -0.132845 -0.484537 0.864625
0.433333 2.000000 26.299999 0.009797 -0.543858 0.839120
0.400000 2.066667 26.299999 -0.093324 -0.484296 0.869913
0.433333 2.066667 26.299999 -0.078957 -0.468821 0.879757
0.466667 2.000000 26.299999 0.124521 -0.522505 0.843494
0.466667 2.066667 26.299999 0.069423 -0.473438 0.878087
0.500000 2.066667 26.299999 0.102642 -0.499819 0.860027
0.533333 2.066667 26.299999 0.185669 -0.510560 0.839557
0.566667 2.066667 26.299999 0.238202 -0.508461 0.827482
0.566667 2.133333 26.299999 0.232008 -0.461436 0.856300
0.533333 2.133333 26.350000 0.182191 -0.598809 0.779894
0.566667 2.200000 26.350000 0.176436 -0.652273 0.737164
0.366667 2.200000 26.400000 -0.215247 -0.613375 0.759894
0.400000 2.200000 26.400000 -0.162979 -0.637370 0.753125
0.433333 2.200000 26.400000 -0.088264 -0.656063 0.749527
0.466667 2.200000 26.400000 0.005977 -0.667503 0.744583
0.500000 2.200000 26.400000 0.047700 -0.678901 0.732679
0.533333 2.200000 26.400000 0.140096 -0.690991 0.709157
0.566667 2.200000 26.400000 0.136724 -0.695740 0.705161
0.600000 1.933333 26.200001 0.227079 -0.493018 0.839862
0.633333 1.933333 26.200001 0.208329 -0.482010 0.851038
0.666667 1.933333 26.200001 0.213962 -0.471486 0.855524
0.700000 1.933333 26.200001 0.291862 -0.467828 0.834239
0.733333 1.933333 26.200001 0.391839 -0.447807 0.803698
0.700000 2.000000 26.200001 0.217058 -0.507460 0.833889
0.666667 2.000000 26.250000 0.250956 -0.483937 0.838347
0.666667 2.066667 26.250000 0.176068 -0.541662 0.821951
0.700000 2.066667 26.250000 0.193541 -0.546143 0.815027
0.600000 2.066667 26.299999 0.271503 -0.505790 0.818818
0.600000 2.133333 26.299999 0.261780 -0.470179 0.842854
0.633333 2.133333 26.299999 0.170550 -0.527123 0.832499
0.600000 2.200000 26.350000 0.202835 -0.661969 0.721564
0.633333 2.200000 26.350000 0.174785 -0.660823 0.729906
0.666667 2.133333 26.299999 0.155760 -0.555189 0.817009
0.700000 2.133333 26.299999 0.214026 -0.565729 0.796332
0.666667 2.200000 26.350000 0.174801 -0.653577 0.736398
0.700000 2.200000 26.350000 0.222011 -0.652059 0.724935
0.733333 2.000000 26.200001 0.277235 -0.499358 0.820842
0.766667 2.000000 26.200001 0.378746 -0.473610 0.795138
0.733333 2.066667 26.250000 0.274293 -0.528406 0.803462
0.766667 2.066667 26.250000 0.385454 -0.507773 0.770449
0.800000 2.066667 26.200001 0.445948 -0.477365 0.757135
0.833333 2.066667 26.200001 0.510199 -0.486657 0.709128
0.800000 2.066667 26.250000 0.455035 -0.505051 0.733393
0.733333 2.133333 26.299999 0.238592 -0.569640 0.786501
0.766667 2.133333 26.299999 0.370962 -0.574601 0.729535
0.766667 2.200000 26.299999 0.335443 -0.582433 0.740438
0.733333 2.200000 26.350000 0.263890 -0.642483 0.719428
0.800000 2.200000 26.299999 0.377727 -0.602332 0.703221
0.833333 2.200000 26.299999 0.436821 -0.603695 0.666888
0.600000 2.200000 26.400000 0.159429 -0.715918 0.679738
0.633333 2.200000 26.400000 0.188357 -0.710787 0.677719
0.600000 2.200000 26.450001 0.262272 -0.715324 0.647707
0.333333 2.333333 26.500000 -0.230753 -0.725883 0.647955
0.366667 2.333333 26.500000 -0.260005 -0.778331 0.571487
0.333333 2.333333 26.549999 -0.329677 -0.694443 0.639579
0.366667 2.333333 26.549999 -0.243916 -0.723016 0.646338
0.433333 2.266666 26.500000 -0.131324 -0.771531 0.622490
0.400000 2.333333 26.500000 -0.316546 -0.769411 0.554801
0.400000 2.333333 26.549999 -0.178117 -0.720838 0.669825
0.433333 2.333333 26.549999 -0.121492 -0.711797 0.691798
0.500000 2.266666 26.500000 -0.036382 -0.812608 0.581674
0.466667 2.333333 26.500000 -0.287106 -0.716823 0.635401
0.466667 2.333333 26.549999 -0.066634 -0.713080 0.697909
0.500000 2.333333 26.549999 -0.002500 -0.709841 0.704358
0.533333 2.266666 26.500000 0.017765 -0.819616 0.572637
0.566667 2.266666 26.500000 0.176414 -0.774128 0.607951
0.533333 2.333333 26.549999 0.070094 -0.695105 0.715483
0.566667 2.333333 26.549999 0.124300 -0.679105 0.723440
0.600000 2.266666 26.500000 0.298297 -0.739494 0.603463
0.633333 2.266666 26.500000 0.340439 -0.718840 0.606111
0.600000 2.333333 26.549999 0.185657 -0.655628 0.731905
0.633333 2.333333 26.549999 0.248020 -0.634247 0.732268
0.666667 2.333333 26.500000 0.374011 -0.678990 0.631734
0.700000 2.333333 26.500000 0.380622 -0.658274 0.649463
0.666667 2.333333 26.549999 0.358831 -0.598569 0.716210
0.700000 2.333333 26.549999 0.450509 -0.554122 0.699993
0.733333 2.266666 26.400000 0.334588 -0.653519 0.678944
0.766667 2.266666 26.400000 0.402297 -0.632820 0.661586
0.733333 2.266666 26.450001 0.430570 -0.639890 0.636514
0.766667 2.333333 26.450001 0.450788 -0.607794 0.653741
0.800000 2.266666 26.400000 0.486776 -0.591172 0.643090
0.833333 2.333333 26.400000 0.563802 -0.527267 0.635701
0.800000 2.333333 26.450001 0.504759 -0.561688 0.655534
0.833333 2.333333 26.450001 0.623082 -0.481707 0.616221
0.733333 2.333333 26.500000 0.424757 -0.622526 0.657299
0.766667 2.333333 26.500000 0.529328 -0.521966 0.668853
0.800000 2.333333 26.500000 0.645397 -0.413815 0.642044
0.833333 2.400000 26.500000 0.646058 -0.430324 0.630421
0.833333 2.466666 26.500000 0.608662 -0.441174 0.659466
0.800000 2.400000 26.549999 0.680103 -0.391322 0.619940
0.800000 2.466666 26.549999 0.562349 -0.490871 0.665439
0.833333 2.466666 26.549999 0.640770 -0.457337 0.616650
0.400000 2.333333 26.600000 -0.189435 -0.618271 0.762794
0.433333 2.333333 26.600000 -0.096667 -0.609287 0.787036
0.333333 2.466666 26.700001 -0.262811 -0.575404 0.774494
0.366667 2.466666 26.700001 -0.199489 -0.600643 0.774230
0.400000 2.466666 26.700001 -0.114853 -0.606343 0.786865
0.433333 2.466666 26.700001 -0.049217 -0.613148 0.788433
0.466667 2.333333 26.600000 -0.039430 -0.610202 0.791264
0.500000 2.333333 26.600000 0.064100 -0.620960 0.781217
0.500000 2.333333 26.650000 0.968363 -0.182130 0.170592
0.533333 2.333333 26.600000 0.087810 -0.602498 0.793275
0.566667 2.333333 26.600000 0.155559 -0.571601 0.805651
0.466667 2.466666 26.700001 0.039724 -0.617899 0.785253
0.500000 2.466666 26.700001 0.160730 -0.612035 0.774325
0.533333 2.466666 26.700001 0.187502 -0.596727 0.780230
0.566667 2.466666 26.700001 0.218823 -0.577461 0.786546
0.333333 2.533334 26.700001 -0.163928 -0.607438 0.777269
0.366667 2.533334 26.700001 -0.085213 -0.598029 0.796932
0.333333 2.600000 26.750000 -0.180796 -0.604254 0.776009
0.366667 2.600000 26.750000 -0.079163 -0.610266 0.788232
0.500000 2.533334 26.700001 0.023723 -0.555710 0.831038
0.466667 2.533334 26.750000 0.051609 -0.593377 0.803268
0.500000 2.600000 26.750000 0.106524 -0.670654 0.734082
0.533333 2.533334 26.700001 0.135585 -0.567473 0.812152
0.566667 2.533334 26.700001 0.196442 -0.571101 0.797028
0.533333 2.600000 26.750000 0.218258 -0.676481 0.703376
0.566667 2.600000 26.750000 0.166912 -0.654089 0.737772
0.333333 2.600000 26.799999 -0.349384 -0.580036 0.735860
0.366667 2.600000 26.799999 -0.270577 -0.608939 0.745642
0.400000 2.600000 26.799999 -0.136158 -0.651112 0.746669
0.433333 2.600000 26.799999 -0.057855 -0.680612 0.730356
0.333333 2.666667 26.799999 -0.271418 -0.589617 0.760713
0.366667 2.666667 26.850000 -0.287154 -0.606883 0.741104
0.333333 2.733334 26.850000 -0.364514 -0.579738 0.728720
0.333333 2.733334 26.900000 -0.372563 -0.586052 0.719541
0.366667 2.733334 26.900000 -0.330004 -0.607304 0.722689
0.333333 2.733334 26.950001 -0.560114 -0.496841 0.662889
0.366667 2.733334 26.950001 -0.468046 -0.534600 0.703659
0.433333 2.666667 26.900000 -0.162730 -0.620718 0.766961
0.400000 2.733334 26.900000 -0.197297 -0.643309 0.739748
0.400000 2.733334 26.950001 -0.332969 -0.584857 0.739645
0.433333 2.733334 26.950001 -0.127956 -0.636270 0.760781
0.466667 2.600000 26.799999 0.040216 -0.688364 0.724250
0.500000 2.600000 26.799999 0.161973 -0.682680 0.712540
0.533333 2.600000 26.799999 0.244729 -0.669521 0.701320
0.566667 2.600000 26.799999 0.249357 -0.659719 0.708937
0.466667 2.733334 26.900000 0.050999 -0.667825 0.742569
0.500000 2.733334 26.900000 0.134052 -0.656969 0.741904
0.466667 2.733334 26.950001 -0.017629 -0.630839 0.775714
0.500000 2.733334 26.950001 0.128397 -0.614378 0.778494
0.533333 2.733334 26.900000 0.208066 -0.653232 0.728008
0.566667 2.733334 26.900000 0.248054 -0.648633 0.719544
0.533333 2.733334 26.950001 0.259258 -0.592088 0.763031
0.566667 2.733334 26.950001 0.362799 -0.562510 0.742939
0.600000 2.333333 26.600000 0.237050 -0.537960 0.808954
0.666667 2.400000 26.600000 0.365560 -0.539563 0.758444
0.700000 2.400000 26.600000 0.443381 -0.508106 0.738405
0.700000 2.466666 26.600000 0.368010 -0.547934 0.751223
0.666667 2.466666 26.650000 0.337565 -0.566491 0.751756
0.733333 2.466666 26.600000 0.436218 -0.535222 0.723361
0.766667 2.466666 26.600000 0.532673 -0.501563 0.681684
0.600000 2.533334 26.700001 0.212020 -0.574930 0.790255
0.633333 2.533334 26.700001 0.259320 -0.582953 0.770012
0.600000 2.600000 26.750000 0.179497 -0.643400 0.744189
0.633333 2.600000 26.750000 0.265501 -0.626182 0.733080
0.666667 2.533334 26.700001 0.338678 -0.574979 0.744780
0.700000 2.533334 26.700001 0.415341 -0.549193 0.725175
0.666667 2.600000 26.700001 0.318935 -0.620504 0.716418
0.700000 2.600000 26.700001 0.335907 -0.603288 0.723333
0.766667 2.533334 26.600000 0.473547 -0.502988 0.723019
0.733333 2.533334 26.650000 0.427701 -0.546943 0.719670
0.766667 2.600000 26.650000 0.504766 -0.509893 0.696578
0.800000 2.533334 26.600000 0.544311 -0.498756 0.674513
0.833333 2.600000 26.600000 0.585942 -0.493566 0.642701
0.800000 2.600000 26.650000 0.562374 -0.510512 0.650471
0.733333 2.600000 26.700001 0.423134 -0.570839 0.703634
0.766667 2.600000 26.700001 0.493107 -0.559866 0.665879
0.800000 2.666667 26.700001 0.554182 -0.556248 0.619250
0.833333 2.666667 26.700001 0.614779 -0.546846 0.568336
0.800000 2.666667 26.750000 0.621621 -0.573233 0.533846
0.833333 2.733334 26.750000 0.595778 -0.598199 0.535917
0.600000 2.666667 26.799999 0.307414 -0.634401 0.709247
0.633333 2.666667 26.799999 0.354685 -0.631108 0.689856
0.600000 2.666667 26.850000 0.199072 -0.680155 0.705520
0.633333 2.733334 26.850000 0.357197 -0.623558 0.695403
0.666667 2.666667 26.799999 0.365638 -0.645895 0.670170
0.700000 2.666667 26.799999 0.353025 -0.675173 0.647700
0.666667 2.733334 26.850000 0.357960 -0.622783 0.695705
0.700000 2.733334 26.850000 0.313589 -0.636866 0.704318
0.600000 2.733334 26.900000 0.243138 -0.642800 0.726424
0.633333 2.733334 26.900000 0.286030 -0.625500 0.725904
0.600000 2.733334 26.950001 0.465478 -0.523108 0.713925
0.666667 2.733334 26.900000 0.245314 -0.612252 0.751644
0.733333 2.733334 26.799999 0.387729 -0.622130 0.680162
0.766667 2.733334 26.799999 0.481851 -0.635955 0.602810
0.733333 2.733334 26.850000 0.303863 -0.647771 0.698613
0.766667 2.733334 26.850000 0.475044 -0.609088 0.635094
0.800000 2.733334 26.799999 0.598350 -0.608870 0.520822
0.866667 2.133333 26.200001 0.544170 -0.526444 0.653250
0.900000 2.133333 26.200001 0.580760 -0.539890 0.609292
0.866667 2.200000 26.250000 0.510458 -0.573379 0.640834
0.900000 2.200000 26.250000 0.581715 -0.542225 0.606300
0.933333 2.200000 26.200001 0.643598 -0.511534 0.569311
0.966667 2.200000 26.200001 0.702412 -0.473686 0.531262
0.933333 2.200000 26.250000 0.684052 -0.480012 0.549237
0.866667 2.200000 26.299999 0.512575 -0.575989 0.636791
0.900000 2.200000 26.299999 0.670323 -0.488239 0.558828
1.000000 2.200000 26.200001 0.789893 -0.391171 0.472286
0.933333 2.266666 26.299999 0.720588 -0.420122 0.551590
0.966667 2.266666 26.299999 0.835836 -0.308844 0.453866
0.933333 2.333333 26.350000 0.748216 -0.347492 0.565175
0.966667 2.333333 26.350000 0.842729 -0.262732 0.469873
0.966667 2.466666 26.299999 0.823388 -0.149093 0.547544
0.966667 2.400000 26.350000 0.795468 -0.301163 0.525863
0.933333 2.466666 26.350000 0.822849 -0.214965 0.526033
1.033333 2.266666 26.200001 0.823838 -0.277367 0.494326
1.000000 2.266666 26.250000 0.842530 -0.284038 0.457675
1.033333 2.333333 26.250000 0.834965 -0.267421 0.480957
1.066667 2.333333 26.200001 0.853656 -0.231647 0.466489
1.033333 2.400000 26.200001 0.852565 -0.210906 0.478175
1.000000 2.400000 26.250000 0.815644 -0.253492 0.520064
1.033333 2.466666 26.250000 0.851476 -0.205614 0.482402
1.066667 2.466666 26.200001 0.882882 -0.181147 0.433249
1.066667 2.466666 26.250000 0.873496 -0.207673 0.440315
1.000000 2.333333 26.299999 0.851279 -0.256020 0.458016
1.000000 2.400000 26.299999 0.823300 -0.277134 0.495353
1.033333 2.466666 26.299999 0.840864 -0.233141 0.488460
1.000000 2.466666 26.350000 0.829298 -0.251484 0.499019
1.066667 2.533334 26.200001 0.896793 -0.222180 0.382620
1.100000 2.600000 26.200001 0.913607 -0.253390 0.317986
1.066667 2.533334 26.250000 0.883321 -0.255294 0.393154
1.066667 2.600000 26.250000 0.883961 -0.295647 0.362224
1.033333 2.533334 26.299999 0.850356 -0.282436 0.443987
1.000000 2.533334 26.350000 0.815037 -0.308304 0.490574
1.033333 2.600000 26.350000 0.850548 -0.335683 0.404827
1.066667 2.600000 26.299999 0.880063 -0.315396 0.354986
1.100000 2.666667 26.299999 0.914983 -0.300087 0.269728
1.100000 2.733334 26.299999 0.916129 -0.268260 0.297902
1.066667 2.666667 26.350000 0.884286 -0.311003 0.348303
1.100000 2.733334 26.350000 0.927225 -0.267041 0.262571
0.866667 2.333333 26.400000 0.651475 -0.452551 0.608915
0.900000 2.333333 26.400000 0.746138 -0.331038 0.577661
0.866667 2.333333 26.450001 0.753881 -0.348939 0.556692
0.933333 2.333333 26.400000 0.845722 -0.195762 0.496419
0.900000 2.466666 26.400000 0.767142 -0.293242 0.570528
0.900000 2.400000 26.450001 0.747103 -0.351582 0.564116
0.866667 2.466666 26.450001 0.697898 -0.360295 0.618972
0.933333 2.400000 26.400000 0.759956 -0.340347 0.553743
